# 3D point list with one line of data per point:
#   POINT3D_ID, X, Y, Z, R, G, B, ERROR, TRACK[] as (IMAGE_ID, POINT2D_IDX)
# Number of points: 406, mean track length: 4.0367454068241466
8842 -1.9269423364780354 1.8145666038591792 -1.7455742798063165 227 225 213 0.72900063120095382 28 729 25 554 24 500 27 637
8843 -3.316579204591958 3.8444217922268757 -0.62205275996605647 196 184 170 2.1665965521474058 28 611 25 559 27 840
8844 -3.8662558083477583 2.3919919579606814 -1.7198967726295542 146 56 51 0.28199151810272749 28 627 25 570 27 565 24 495
8845 2.6576790296309247 15.327057444507437 -15.591558733063383 42 41 36 0.32628784444035736 28 485 25 581 27 544
8846 3.1476147867837505 17.737304203965596 -13.593173826578889 57 6 2 1.7167316815890779 28 1058 25 582 24 1038
8847 3.0083834680750225 17.20610709331411 -13.666000090381171 71 15 10 0.43796054202949131 28 1059 25 583 27 648 24 642
8848 2.9904497086595336 17.314309718305655 -15.346468299594411 187 126 94 0.38223951669711653 28 662 25 584 27 873 24 1035
8849 3.2032503763785884 16.359189505918053 -14.231796259297278 51 55 58 0.3032922501748519 28 482 25 589 27 642 24 393
8850 -2.0710641661837133 7.0321579656019013 -5.1082299461228988 158 164 137 0.42007255041417935 28 697 25 631 27 516
8851 -2.1131464911745308 7.0245095385837244 -5.1787039338999339 103 102 71 0.54774679486802669 28 402 25 633 27 683
8852 -0.82667577062477071 9.3933446997641639 -4.5600324751716945 19 17 1 2.1667297543444071 28 717 27 613 24 551
8853 -1.5273366847453362 5.9327216321530027 -3.3077706873142581 195 151 52 0.40553660895842047 28 502 25 660 27 466
8854 -1.7973058809443399 5.8847328463517945 -4.3063930278554858 119 116 109 1.9921389661057929 28 761 25 666 27 1163 25 1091
8855 -4.2209565223334558 4.1288011200086236 -0.83236876280118255 0 4 0 0.21651841562603466 28 1078 25 696 27 532
8856 -4.5606579867503161 4.7269386474501411 -0.59835374022717369 157 156 146 1.3587529277175368 28 593 25 704 27 971
8857 -4.485659436163 4.3382843178854049 -0.53308781799600369 199 199 185 1.9533726604284194 29 945 25 705 27 791
8858 -6.3826838982754825 5.3235304761467548 -5.5394133045964544 205 199 185 0.068703285874879644 29 1282 27 955
8859 -1.788894166665042 6.0352703599767192 -3.2395279230276364 179 134 62 0.46736130873700549 28 749 25 715 27 662
8860 2.5230519698799774 16.526041576633045 -13.877763234602511 245 88 7 0.34224192175758078 28 597 25 716 27 741 24 645
8861 2.6746033633960038 16.823829582990477 -14.0470917521183 196 37 0 0.36920870074168294 28 1060 25 730 24 1139
8862 3.0106945515426573 17.28028856065335 -13.875901294527988 202 145 133 0.33605745246878671 28 1057 25 732 27 743 24 1039
8863 3.1555033899668707 16.759582120315876 -14.980146254221921 95 87 80 0.72784151533998764 28 1050 25 738 24 1177
8864 2.8093936687531653 15.429508875195515 -15.832289451554015 115 113 101 0.5382527500260994 28 1048 25 740 27 1374
8865 -2.0515677109436048 1.8019807635030762 -1.7029637934399442 154 151 141 0.72939565370115633 22 573 29 569 25 743 27 640 24 511
8866 -2.8143704423392624 6.6194419129335165 -4.0984281906937836 255 245 217 0.21753323801350979 28 562 25 769 27 1229 24 872
8867 -3.0730894812007041 10.897444864480196 -6.2085022711278031 95 78 63 0.14893074668074854 28 901 25 775 27 854
8868 -2.8077135403710156 6.8358806276787947 -4.356559869783573 208 93 69 0.54871266538977714 28 559 25 781 27 822 24 467
8869 -3.2948167509519419 11.310775367263068 -6.2593355729941154 188 163 123 2.075305154862404 28 891 25 785 27 1208
8870 -2.0612383504888614 6.0796949428652143 -3.514218792311139 58 51 22 0.53046626803924601 28 733 25 795 27 1084
8871 -2.6863343515420945 6.3196694939952787 -3.435746627315416 163 122 34 1.2095456644781559 28 899 25 818 27 1224 24 1171
8872 -2.8251843458278403 6.9574014353746456 -4.6076099757004387 253 187 168 0.28411060071224542 28 898 25 819 27 1262
8873 -3.4800743156591323 3.955662143201133 -0.49248553062512768 57 53 41 0.8517428859417715 28 1214 25 820
8874 -2.0072068463222199 7.0499545115143745 -5.0667401484001395 137 144 117 0.36891910986856352 28 1272 25 822 27 1488
8875 -3.4853520489879042 4.0855153560187887 -0.47915856060221224 5 2 0 0.70932851159516086 28 423 25 832
8877 -3.7200581195953526 2.5283045225671281 -0.88303227799059658 11 11 9 0.3443552171006577 28 1100 25 843 24 660
8878 -3.5277460951076205 6.0359822411483739 -3.8388011534994297 189 181 172 0.45245487557191366 28 877 25 855 27 938 24 957
8879 -3.5426192609666138 6.0464922959970107 -3.7823442351279137 40 33 19 0.23343787952706829 28 880 25 857 27 838 24 748
8880 -6.7990852710942535 10.449908567586325 -20.962692282852522 204 196 167 0.89322918245818705 22 411 23 760 25 864 27 772 24 821
8881 -6.3076094522135646 3.4779029000130963 -5.3994652336887201 219 217 204 1.2939584177587644 28 1107 25 894
8882 -3.1705771298885148 11.059830900358856 -6.4098102728673325 15 5 0 1.476295355090705 28 903 25 900 27 1175 25 1175
8883 2.6239871614918582 14.697375858769414 -16.272439695645954 122 119 109 0.43646671920306512 28 1004 25 920
8884 -0.83010153429495126 3.3431517178593815 -0.27663883132017275 216 201 160 0.16601760352507777 23 716 25 925
8885 -4.067720525033538 2.7592569854182645 -1.9872185186720233 61 8 4 2.0110164961183155 28 1093 25 939
8886 -3.9629976454276661 3.9435466276570303 -0.57102255006275771 218 125 122 0.29916187971428748 29 923 25 947 24 869
8887 -4.5353682981001535 4.6752754908338776 -0.63081350345453435 78 80 69 1.3009334184144503 28 1141 25 977 27 964 24 746 29 943
8888 -4.4963319303688749 4.6049017834671417 -0.38719191558585103 151 150 142 2.5047512408186621 29 941 25 979 27 965 27 976 24 757 24 765
8890 -6.7309772788106086 9.9657510362933941 -19.556140783975071 203 193 168 1.9517878701098881 23 764 28 1340 25 1018 27 566 24 817
8891 -7.4324668419874378 10.767758587680438 -21.527903675676313 172 164 143 1.0109918445774866 22 571 23 765 25 1025
8892 -6.6971692410682104 10.109716945448158 -20.496576316505053 253 253 247 1.6165211009380551 23 588 25 1047 22 340
8893 -3.3630718888435438 3.8669647719731151 -0.53841171199459459 158 152 138 0.7221623148355929 28 1203 25 1070 27 1015 24 950
8894 -3.4533814318620508 3.946979139946345 -0.77357510339265045 82 9 2 0.34421295563150395 29 1097 25 1088 27 834 24 974
8895 -1.5267183794356689 6.6838002192994086 -3.0249608404628407 142 140 121 1.5182141253281045 28 758 25 1095
8896 -1.6632503909943479 6.1182355488034901 -4.4776717665374992 204 188 172 0.22492876286328514 28 1260 29 1293 25 1105
8897 -2.7604777164350813 11.773952745409863 -6.0593234125820183 67 68 60 1.5959694940191118 28 1403 25 1158 27 1191
8898 -2.9109344160631281 6.662468765366099 -4.0727219746494399 254 215 180 0.17513130676944197 28 1599 25 1162 27 1252
8899 -3.1096136888661348 6.3642382198606073 -3.5739731520816669 79 78 58 0.56681058268260587 28 861 25 1170 27 1471 24 986
8900 -2.630392603107131 11.298360312841041 -5.4855501920541494 112 109 90 1.8943500559451691 28 1409 25 1171
8901 -1.4509336795593704 11.560326626638705 -5.7665639723594131 62 56 37 1.6888260571676483 29 588 25 1195 24 539
8902 3.0837825733468027 15.766371376777617 -15.458183495653746 148 139 121 2.7380513714520873 28 1432 25 1229 27 1008
8903 -0.21189191245075553 11.066886043589871 -5.8797048247863071 121 115 96 0.44740889334745826 28 1530 25 1319 27 1136
8904 -1.942538954579716 1.8165232843080608 -1.7136751566934552 148 142 136 0.57030076554136533 28 1255 25 1325 27 1439
8905 2.8441027645891168 15.640684647607971 -15.412035272123191 110 110 98 0.4824073534807547 28 1594 25 1337 27 1373
8906 2.7113730368312159 15.724100848091338 -13.29228169843034 69 49 35 0.53157016162473214 28 1421 25 1338 27 1370
8907 2.7529286877556696 16.575860064229449 -14.011738643056379 187 51 7 0.34373997059401229 28 1417 25 1357 27 1376 24 1037
8908 -1.7446318758681902 6.0378624694740939 -4.5256936031075892 121 117 102 0.4319318886941157 28 1252 25 1396 27 665
8909 -3.4952842102219979 6.2373123203114718 -3.7583765089905001 130 103 78 0.75913849898460428 21 341 20 355 22 488 23 1139 28 876 25 372 23 269 28 317 24 388
8910 -1.8519835422659015 5.7445789003159726 -4.4379952404816398 160 160 152 0.62762617957784794 23 607 28 690 25 662 31 626 29 611 27 633
8911 -3.8256570330659239 3.895519551059178 -0.68300847326545577 242 128 136 0.99708110427903529 14 737 9 678 10 718 15 865 19 326 18 300 21 350 20 323 22 430 23 501 25 336 33 420 30 381 31 345 55 635 62 1141 63 1308 64 1659 29 356 27 360 24 318
8912 -3.824065226608512 3.885152080039187 -0.58679742214227981 236 119 121 0.63623395230808832 19 237 21 210 20 183 22 153 23 204 28 157 25 118 33 108 30 108 55 123 29 84 27 74 24 74
8913 -2.0050440423217593 1.9561073483049414 -1.5350882205271967 0 0 0 0.2008677068860118 22 13 28 13
8914 -3.6590306714501843 2.9746016734510858 -1.31450705115594 2 2 1 1.0976695541069394 25 5 27 0
8916 3.053515800402304 16.279410042916108 -13.047299606864074 44 88 163 1.0997551790999998 25 8 27 8 24 13
8918 -1.1149277831763731 14.587167794405362 -23.574004970427975 65 62 55 1.9972912747907057 28 30 27 25 24 25
8919 -1.9427893682370188 6.3530763725184505 -1.8054504884316491 189 183 158 1.8606450792596876 25 23 27 27
8920 3.8962194438783895 15.602579728188166 -11.060839126372697 209 195 158 0.85573674260637189 25 18 27 29 24 30
8921 5.147928814229739 14.137339039503969 -14.718687579046989 134 110 72 0.65085880564287946 25 27 27 33 24 32
8924 -3.5993986578543633 5.3465522393768099 -2.7862066266361785 16 18 13 0.92588770285380528 25 25 27 40 24 51
8925 -2.1334892975492683 8.2917903927348959 -4.8135542690468842 4 5 1 0.24727190430838442 25 38 27 45
8926 -3.636898274845096 2.5207565288425484 -1.257352122815087 163 163 153 1.923615524289664 23 50 29 70 27 49
8927 -3.738521879510591 3.7851034225087545 -0.75200985688513255 184 61 59 0.32810421497085779 29 60 27 50 24 49
8929 -1.4348988292131841 6.4970699317232459 -4.285668724437059 80 80 72 1.0409019693113957 28 62 27 62 24 65
8930 1.1543852781963428 10.599782562425313 -17.969714039194077 35 33 21 0.87300704927202499 25 17 24 29 28 33
8932 -4.1726520674528693 2.8743443098337553 -1.6187662394056712 179 64 69 1.5637889874388071 25 71 27 77 24 47
8933 -5.5941186682376367 4.4847842353181608 -5.6487080318574394 188 190 179 0.52045776201099481 29 66 27 83 24 78
8934 -5.7649103593252384 3.9465371629548365 -6.2512593019552529 198 200 189 0.15662869729134812 29 86 27 84 24 80
8935 3.1024161451739642 17.867636728820788 -12.990319147478607 204 185 152 0.55495992588258225 25 86 27 100 24 90
8937 -1.6979029410841064 6.0930935509155546 -3.0916559330430942 0 0 2 0.33101546659385622 29 126 27 109 24 96
8938 -1.9366862805817813 1.865909315199803 -1.9267463407968193 29 30 26 0.83973104262033349 23 310 27 110 24 116
8939 -2.1194172415834291 3.1134675778216487 -2.880597148062094 175 59 60 0.76877863044364803 29 100 27 117 24 111
8940 2.9455529303059023 17.193589187547051 -13.248312483624314 56 8 0 0.41159469908784968 25 85 27 119 24 91
8941 -1.4496150887368238 13.231432066282755 -6.6887043504144552 179 169 134 0.56035362916794129 25 94 27 120
8942 -2.8950959405044383 6.4144160519055671 -4.0123915690802479 245 87 84 1.564945784419318 25 99 27 147 24 147
8943 -2.6946732860473142 13.477976052404957 -8.8086306248600099 198 160 103 0.70521676256205135 25 61 27 148
8944 -4.7831727740890138 2.0309931093693891 -3.2744657768054592 255 255 255 2.5458518818172906 25 2 27 166
8945 -1.9845175572901661 6.4955161907435226 -4.2938608199605026 230 214 191 1.475467466280503 25 235 27 172 24 171
8946 5.6072166880417349 17.718874425697216 -14.656078934670816 84 84 82 0.049698783394754066 25 145 27 179 24 119
8949 -4.4422508762266224 4.6386621585255199 -0.45236059780905452 106 103 94 1.1642038391097478 25 190 28 592 27 225 24 203
8950 -3.7404612750836481 2.4217948429253275 -1.1511778229343754 89 93 90 0.63340658736354649 29 352 27 231 24 328
8951 3.8404265808082929 15.940482264579243 -14.638387485395111 166 142 108 0.48889624044340246 25 296 27 239 24 219
8952 4.625233801438835 13.835012782926608 -14.202444236331104 253 218 166 0.22086054363764937 25 219 27 241 24 217
8953 4.9630422074782459 14.512291579191993 -10.056084636317221 80 81 67 0.15676553495358234 25 221 27 243 24 216
8954 -1.2143552487591567 12.843829314432996 -6.225736228291014 26 27 11 0.18113585055931203 29 261 27 258 24 214
8955 -2.2255315749292568 13.035627981193526 -20.803259096569473 210 206 187 0.52348833103933068 25 466 27 276 24 197
8956 -1.595680179106888 12.680122686483397 -8.160968287754093 212 206 180 0.049936422298346203 25 282 27 277
8957 -1.931964225396684 6.9770622868437515 -5.0232541072840631 187 184 173 0.254645280594824 25 284 29 330 27 283
8958 -1.6264027583105978 13.30636892861315 -8.0460981453667504 17 16 10 0.22790837174730028 25 329 27 288 24 284
8959 4.3792758187702248 16.685377037202432 -13.635880707823031 69 72 64 0.70602638392017925 25 297 27 316 24 301
8960 3.935844783799793 16.903324149739309 -15.284464138110982 187 177 167 0.22059539201656206 25 294 27 318 24 222
8961 -2.158670697682326 12.009451395425476 -19.495687701780248 253 252 247 0.55054199307103946 25 252 27 344 24 358
8962 -3.6035673867451812 2.8082193284331902 -1.4594142423936385 100 100 91 0.86016703667623795 25 412 24 265
8963 -2.4167162283516062 13.714004076594192 -7.7009583779979582 203 197 175 0.3598885496841544 25 508 27 366 24 349
8964 -1.6174569135173662 12.37428091762664 -18.170054609758346 254 254 251 0.25753817210539615 29 270 27 371 24 361
8965 -1.8315874603339077 12.653842004575958 -7.4514054868379658 228 217 188 0.38789482947127257 25 186 27 381 24 545
8966 -5.4516453469825823 4.6362562130084841 -5.6469573031443758 166 166 156 0.40154868202458471 23 387 29 519 27 388 24 369
8967 -4.0431779919950852 3.9028465152696099 -0.19527769350643434 204 198 186 0.66388587887145212 29 412 27 394 24 473
8968 3.3312552776709072 15.632371423588996 -13.480934524782654 158 158 157 0.25830819675832567 25 447 27 422 24 396
8969 4.3180590192788673 13.679258450253323 -14.12995710780867 72 69 53 0.21356283344680801 25 452 27 429 24 404
8970 6.1480535548919191 14.603969846013861 -16.006029580301021 12 12 5 0.29534994573182788 25 456 27 431 24 407
8971 2.6326897823927586 16.064591054183225 -13.714974116663317 116 38 14 0.53727737192521241 28 332 27 446 24 390
8972 -2.3122074030256141 5.181387773143622 -5.4336579917393726 134 139 133 0.33917052855743868 29 459 27 448 24 421
8973 -0.23855354499933693 10.934062408250663 -5.5954086181293716 220 210 183 0.78377927368081657 29 555 27 468 24 554
8974 -0.9790451978591288 10.930517040675827 -5.6051654761516883 15 16 4 1.028879386504715 29 522 27 490 24 631
8975 -2.5291272067760082 14.316553163593682 -8.2127078110398699 19 14 4 0.22471224111091911 25 532 27 499 24 461
8976 -2.2442077415628408 4.9341575879145401 -5.4140318315654321 176 178 167 0.39344912055785325 29 461 27 507 24 546
8977 -2.2595175046633886 11.986049775469017 -19.737089690297637 206 204 196 0.20265247477753492 25 664 27 514 24 532
8978 -2.1965819421829451 7.1063323034506043 -4.9239819584222619 204 205 200 0.11622219209384255 25 641 27 522 24 537
8979 -1.5279064864219734 12.907389351662296 -7.399800943448521 76 76 68 0.34843968197318964 25 463 27 524 24 535
8980 -4.4274647297924004 4.8030542336132633 -0.62385928663314161 109 110 105 0.75266756358554554 25 544 27 537 24 477
8981 -5.4871004929567118 5.2645973696700592 -4.631286683016679 254 255 249 0.42311678561515614 29 857 27 541 24 805
8983 5.9436957767210146 14.686157696391398 -15.805542545952207 137 139 135 0.50097703290999063 25 605 27 568 24 566
8984 4.7631531944537633 13.084570004574905 -8.3422303976119387 73 68 48 0.33451285761042637 25 302 27 578 24 527
8985 4.7869785325595471 13.039469839502837 -8.6638309628782633 61 61 49 0.25794373264020104 25 603 27 579 24 409
8986 4.8697957690071592 14.152195173052988 -10.112399547714627 55 50 34 0.24506960658302571 25 606 27 581 24 406
8987 4.7492266512499155 14.184423562066781 -10.023298238964985 188 182 164 0.10152257559763668 25 607 27 582 24 570
8988 5.5212135162333515 15.315906150535817 -16.652834002391234 184 178 167 0.45497743020844816 25 454 27 583 24 575
8989 3.4353740412416944 12.646644477995352 -15.308620409004856 218 213 194 0.26516600982529398 25 613 27 587 24 519
8990 4.7194157294171681 17.645556948573169 -14.089836647783571 54 47 26 0.5761756432479348 25 298 27 588 24 443
8991 4.4439535759243851 17.235390789909832 -13.109215352145119 150 130 92 0.5719895486303469 25 449 27 590 24 578
8992 -2.4953033951722272 1.8173069924655525 1.086362280653304 223 209 182 0.97302364874281877 28 1188 27 616
8993 -1.968631146497551 1.8063783315842941 -1.7230668521883419 107 107 105 0.60648356165411055 28 686 27 639 24 633
8994 2.9179495418387966 15.709366964784062 -13.091173223275502 72 94 150 0.31593450537261347 28 659 27 643 24 510
8995 -1.4626235940405723 12.77034455675016 -6.6705905148487501 180 179 166 1.2098617186078255 25 821 27 685 24 536
8996 -1.3572478348442774 12.974794735604725 -6.1949928640571024 161 152 121 0.26970243561142088 29 1028 27 686 24 930
8997 -1.3157727091501168 13.011042063628176 -6.3100411513755468 184 176 150 0.26037943122353924 29 637 27 688 24 925
8998 -2.0353495242058632 11.761862501349075 -19.132200662429327 168 167 158 0.063726035338000309 25 667 27 689 24 462
8999 -2.166287235548344 4.9854275893155098 -5.2868563615334763 142 147 140 0.33643757250168421 29 1193 27 705 24 1109
9000 3.6596980038696061 15.538751482753048 -13.190591690486702 20 14 4 0.29654656557816067 25 553 27 712 24 582
9001 2.830022538511535 13.865549367126462 -8.3565842964665507 205 192 158 0.21863350976344667 28 1487 27 713 24 831
9002 3.8633474004276422 14.852161989582193 -14.81576795825651 145 104 42 0.60938254223763566 25 299 27 716 24 434 24 1074
9003 3.8413195783620653 12.372746071936721 -15.084723955477982 219 212 197 0.28898326247404893 25 936 27 719 24 577
9004 3.7377167946454346 16.266142391367772 -12.899046182336763 60 87 168 2.0327686504792681 25 910 28 988 27 721
9005 4.7979102808474146 13.840651043865654 -14.398156739653583 56 38 13 0.35681516551667736 25 895 27 722 24 523
9006 4.7054134072920375 14.386946927755657 -9.9476515035513522 194 182 158 0.44424092332279635 25 609 27 724 24 571
9007 5.0485096496387865 14.401162142139182 -9.9739701268140646 169 163 144 0.31265109621493942 25 886 27 727 24 728
9008 4.084581897354199 12.033599403293024 -9.7532186829623786 165 159 149 0.56416379583989551 25 455 27 728
9009 6.3382192950052572 14.683732866771052 -16.133756543585875 191 187 181 0.3905464136913665 25 872 27 729 24 1056
9010 4.8338686042457972 13.179275251586148 -8.604747861550063 68 69 55 0.30146796603206677 25 884 27 730 24 563
9011 4.8828037414655299 13.034856902824963 -8.6538216974463662 173 167 152 0.4280936689050871 25 883 27 731 24 1061
9012 2.9993985758880068 16.153278223852169 -13.848236525018653 124 121 114 0.63211706755102659 25 579 27 750 24 639
9013 -4.1754985946396639 3.9569484799347876 -1.1310325208914509 252 245 229 2.7148174159183398 25 495 27 764 24 860
9014 -5.1308681845513515 4.7306958986457577 -0.38929466698269655 130 131 125 2.0213466231303809 25 953 27 789 24 795
9015 -5.5946714685515788 5.0888718056970834 -5.3989264820147405 144 144 132 0.23539544214330235 29 1290 27 792 24 807
9016 -4.6267639264223321 4.9001833371847976 -0.81845690041416175 17 18 12 1.5852889071305594 29 937 27 793 24 756
9017 -4.4571193319546518 4.2390579078988297 -0.92353529463228023 239 235 223 0.25944185462255143 27 795 24 598
9018 -3.4592643578846887 3.9996036425424486 -0.87897996131450173 155 51 48 0.10670825809501094 25 829 27 796 24 672
9019 -4.4349377381151589 4.1036998631309611 -0.87366702222777348 242 240 227 1.336407557018243 25 690 27 797
9020 -4.4011192147419242 4.287998542663539 -0.73917018283115887 236 236 222 0.68074285251696309 25 972 27 798 24 1161 28 590
9021 -3.0903532704690209 2.3048408373606795 -1.1392654368611641 252 255 250 0.55762072788564065 25 414 27 808 24 875
9022 -1.7408590225878653 13.038478271470144 -7.9384415663347916 215 207 184 0.23872072099898492 25 637 27 832 24 673
9023 -3.4497475505187345 6.4748667613577329 -3.0624265733629574 185 166 144 1.2394378156720018 25 510 27 841 24 956
9024 4.8957947144803127 14.285595130370107 -9.9918701669832739 54 53 38 0.13444909497295063 25 887 27 845 24 567
9025 -3.0339694652160998 10.961131632234611 -5.9898228973989012 126 111 92 1.4651506690534213 25 523 28 564 27 855
9026 -3.152743569541669 3.5109488524336863 0.070659362513086271 136 109 59 0.64860224257505417 25 558 27 870
9027 2.9548307920305064 15.500111791295529 -13.093470057848943 34 34 39 0.42555200058842291 25 916 27 876 24 636 28 658
9028 -4.4583282735609471 4.836193536137988 -0.61317170927566556 12 13 8 1.5638924713542117 29 950 27 905 24 771 24 774
9029 -5.4815109233239792 4.6763768157436836 -5.6427651182030809 191 193 182 0.31347454672214664 29 858 27 909 24 763
9030 -3.4446042825146037 6.52654789119347 -3.61847584063247 71 51 6 0.19126211448228109 28 1362 27 912 24 1000 25 853
9353 -4.2267916481022771 0.28064006648399253 4.7755829523021385 247 254 253 0.3260297604058483 17 258 1 242 2 564 6 217 7 217
6996 -2.6239172524667707 1.8854596808722581 3.884530525606003 186 164 136 0.51394950742029866 32 584 33 567 30 740 62 1019 55 761
9364 -4.5305415509385742 -0.056609957703002624 4.7885479850077974 240 255 251 0.071106571979243416 2 239 17 229 1 268
9370 -4.6093162216290295 -0.059796481878869968 5.5480521737475943 243 253 245 1.6140816443317445 2 49 17 58 6 38 5 40
1926 -1.4328842950282603 -6.0399322276656262 11.128816804510892 109 109 99 1.8594572607478352 58 1432 54 1222
7013 -2.5797528513107801 1.9144349661226077 3.8978169537119398 169 158 140 1.2970207603343686 32 894 33 889 30 601
9371 -4.5539745864435925 -0.17630861982472734 5.4101536484715291 254 253 255 0.091557740205812463 17 282 1 287 2 270
9386 -7.8071326043896647 -1.7932780279133385 1.0745939460432821 218 218 210 0.47595956458855776 2 474 17 294 1 365 6 277 5 259 3 415 7 238
9395 -3.3378211365626291 0.73205240398024518 4.2712383434006851 248 248 229 1.2547058546458258 2 511 1 403 7 583
1951 0.13918558789394708 -2.0931852355978156 12.004163705138769 202 204 203 0.47941004894053263 57 1765 58 1810 61 1658 54 1333
7038 -1.9269474664202551 6.9787104080878395 -0.1126558728803677 209 207 194 1.2457601771581683 26 568 33 1403 31 1269
9398 -4.4811080198339264 0.1125930301658996 4.3640537885306738 177 188 184 1.4518800411575061 2 549 17 571 1 413 6 473 5 535 7 483
1954 -8.8339001456719508 -4.1979479545012159 10.412034003271854 183 188 184 0.40186718074206623 61 1049 54 1349 58 1858 56 1204
7041 -1.2415059974396512 8.3358084638404151 -1.4185004478944045 47 44 33 1.2365623797727254 26 1158 33 1468 29 1232
9399 -3.0794111171639948 3.3014489769361837 6.4361676255789977 105 85 58 0.52584019078882582 2 448 17 248 1 416 6 408
1955 -1.6281362335582596 -2.5694040712745778 10.919856182405562 75 72 67 1.4673605177122397 58 1867 54 1350 56 1197
7042 -2.6743271660002086 8.4885026858677506 -0.13866153691535921 135 152 171 0.22939353425371975 26 1209 33 1480 30 1241
9400 -4.2581909217169605 0.29150043091625294 4.692608413401163 209 205 253 0.097872271348542636 2 586 17 612 1 423
1956 -8.913439679319886 -4.1995459446253829 10.411865530764816 102 106 105 1.4245571789428979 58 1859 61 1053 54 1352
7043 -2.8628307061535816 9.1555816666028598 -1.1149998563359742 187 179 158 0.14918893368649025 73 1848 33 1515 71 1718 30 1273
9401 -4.6530105376133992 -0.32199256551202871 5.0580845383147599 127 148 155 0.0074512468947355234 17 519 1 426 2 535
9402 -14.348316526982821 -5.8137908165534764 3.5213794390851691 188 185 176 1.4946926355569712 17 400 1 429
9403 -4.6333032993807848 -0.28265308698067021 5.0008536784012367 120 141 144 0.025570097108429446 2 487 17 413 1 433
1959 -4.7467369915480839 -2.6501555918524105 7.7077785145584743 72 69 64 1.3605445517609149 61 1622 54 1375 56 1345 53 293
7046 -3.6732927817465511 0.010671675850989003 2.7241216706354336 245 247 244 3.2073368998324137 32 838 33 1566
9404 -4.594701112120454 -0.23351918815753134 5.0390480502978425 138 163 168 0.059340671126135121 17 518 1 434 2 488
1960 -4.6139790958891647 -0.27092290430157484 5.3106305811208578 80 114 149 0.28207078462204627 61 2271 54 1414 53 692
7047 -2.5732860998215714 1.9673513981686976 3.9112339193579091 58 45 26 1.1046703106480236 33 1575 30 600 62 1055
9405 -4.6019106080692591 -0.2591443969930875 5.0168306934875151 218 245 253 0.12754214705217157 2 395 17 412 1 435
1961 -4.6582497700426755 0.67881678747373475 9.0265877076172956 122 122 122 0.25836473399569976 58 1044 61 1452 54 1427 56 1636
7048 -1.8824761517845721 2.6096268837652978 -1.3134427208885857 142 80 78 0.78490803661020303 26 1153 33 1590
9406 -4.5942109739363719 -0.19331918273060247 4.9871321197334586 135 157 163 0.17108957476097561 2 489 17 514 1 440 7 392 5 620 6 381
1962 -4.7904108371117449 0.50738916904981723 9.3111752669796815 103 102 98 0.81739516690261738 61 2256 54 1436
7049 -4.5350562371513634 1.4821920841902931 3.953369917807477 250 250 250 1.1109945558886103 33 36 30 24 26 11 62 82 55 43
9407 -4.63743993241523 -0.23774414247933448 5.1403105852325002 158 175 182 1.3987704301203499 17 563 1 443 2 390 6 393
1963 -2.1291165408650548 -0.18849438802999463 6.6791493476259935 77 79 76 0.79537627842341663 61 2178 54 1440
7050 -2.6124368199787074 1.8792335173131853 3.8277292507408154 20 17 8 0.69138803209726785 33 192 30 204 62 465
9408 -4.5761152800654807 -0.19165776620249836 5.1928971430743429 146 172 176 0.097012799279251813 17 562 1 444 2 531
7051 -2.861921419027365 2.9874660656270033 0.70316059694162958 1 2 3 0.18711319949171212 32 71 33 257
9409 -4.6763833132963324 -0.3615574491991112 5.1137659811277825 116 137 142 0.046610326898905548 2 528 17 560 1 446
1965 -0.67835312647593127 0.80791364804181287 8.8819292326268755 191 183 164 0.37965780919907349 58 2270 61 2330 54 1470
7052 -3.5629427581810948 1.203772266865103 4.1920495714935138 139 124 109 0.78972018269893229 26 664 30 483
9410 -4.6134177653334607 -0.26740116928264884 5.1917561737520623 154 171 178 0.064846383391483256 17 559 1 447 2 524
1966 -2.5134086094353685 -4.0769873663821379 11.262623742996142 175 165 140 2.4599664209399412 58 1634 61 1964 54 1472 56 1920
7053 -2.9034277080521198 8.4873675725212365 -0.26359144129174766 215 210 199 2.5752521265844539 71 769 33 1516
9411 -4.3671911250683051 -0.22010548359343707 5.1950755003699403 140 168 174 1.8662810741571785 17 557 1 448 2 510 7 362
9413 -4.4927934209619496 -0.058008614653123625 4.6769222894511406 238 254 255 0.030920950928764544 2 366 17 490 1 457
7056 -2.0092621040856158 2.1205639634794302 -1.595098017490326 13 13 13 1.4810514984148053 33 12 30 11
9414 -4.2565026841938005 -0.084410889735282185 4.7440911163052828 229 247 250 1.9023110454552279 2 358 1 464 5 413
7057 -2.6117059009508368 5.1266971563143287 -3.0970131055583772 250 253 242 0.69330136184039204 26 5 30 19
9417 -4.5783006686104848 -0.17807875096008643 4.8590559692289723 236 254 255 0.038064302188162917 2 349 17 378 1 475
1973 -5.8554198369395101 -1.5710665086146571 5.3585741174133741 200 189 171 0.61486267144519524 58 1791 61 1703 54 1532 56 1605 53 1262
7060 -3.9647186465847275 1.7176832838911544 3.5100158475246892 248 250 200 1.6899851982450969 26 14 33 34 62 49 30 23 55 39
9418 -4.5596970249278215 -0.15368563329102644 4.927693299427891 146 164 174 0.068608596382272291 2 506 17 525 1 476
1974 -6.0772092131330684 -1.5436722847127204 5.1252832104523378 158 160 158 1.3305662197885499 58 933 54 1534 53 1272 52 867 56 1562
7061 -2.9520179731507192 6.1304958965150176 0.079977601590156627 0 0 0 2.0595830279482579 26 557 33 57
9419 -4.6073052092660429 -0.2204583126600799 4.9157934889558366 237 255 255 0.30992353323663563 2 406 17 422 1 477
1975 -5.9000089564174525 -1.405661174444381 5.3055474415213206 186 178 165 0.44705547217222341 61 2218 54 1556 56 1966 44 1084 46 809
7062 -4.2658943981335566 1.3248986321132987 4.0757806466050139 203 166 121 2.3952861934679928 26 29 33 78 30 33 62 133 55 79
9420 -4.6131504052632364 -0.24328025012955276 4.9448503352258504 118 141 147 0.048565100501085395 2 499 17 513 1 479
1976 -5.8830402601073368 -1.4697651818112401 5.3239983779800495 167 158 141 0.48487214827137792 58 1781 61 2221 54 1563 56 1558 53 1270 44 821 46 799
7063 -3.4408151912507621 1.2091894122260463 4.1973921935399749 250 252 241 0.34637803842972265 26 34 30 36 62 87
9421 -4.4239633516900811 0.025708141827365139 5.1161202531118359 249 253 253 0.1759700396356226 2 403 17 421 1 480
7064 -2.5280589194007779 8.9202293448611698 -2.3431994601767925 185 174 154 2.1458774435402788 33 62 30 44 29 106
9422 -3.433462289563737 2.6810740129661097 -0.7467614004225559 195 197 193 1.0635651408028906 18 66 1 481
1978 -5.7354072290847524 -1.7999625558379952 5.5987619088647751 188 172 157 0.55944404575004048 58 1669 61 1720 54 1568 56 1591
7065 -2.1949704782700912 7.9848447678511043 -1.8114097741662738 63 61 55 0.56949224389169317 26 64 33 63 30 45
9423 -8.1899038769453831 0.77023673772336665 -3.1630447327819282 198 195 188 1.4274734020999396 17 704 1 485
1979 -4.0035277877561963 -1.1960636746920537 9.525586870983668 138 108 69 2.4988747074062907 61 1712 54 1573
7066 -5.640258818031243 1.6638425745557852 4.0564806803178142 67 69 66 0.14724982947545853 26 26 55 919
9424 -2.000331352617454 1.0547446273745145 3.1097527020665514 128 129 123 1.3179279843250284 17 690 1 497
1980 -5.670498997924482 -1.8294971503282225 5.7089416167238758 188 172 157 0.55937213687458909 58 1673 54 1576 61 1677 56 1593 53 1180
7067 -1.6731437175708914 8.06409204420663 -1.8287776123391402 48 44 41 0.70116601096764475 26 59 33 92 30 70 29 103
9425 -4.13361126259099 0.49310940268946901 4.7636497007109604 121 121 119 0.29822245033414302 2 590 17 618 1 503
1981 -1.292411202319973 -1.170514372063068 7.4469273720945681 90 91 86 1.4323003929228706 61 1754 54 1577 56 1581
7068 -4.0251592706111232 3.9401082749725092 -0.47032152317790954 1 0 0 1.0423996751484095 33 139 30 75 31 93 29 138
9426 -2.2414240232990954 3.8522919959173421 5.407524015499674 195 176 143 0.67174959156410996 2 427 17 426 1 506 6 496 5 613 7 542
1982 -0.11882354026801917 -0.5856286769060679 10.059733710342154 157 152 133 0.24033775428903681 58 1775 61 1723 54 1588
7069 -3.5320094759140073 1.5053194522175717 2.7802622134520885 88 92 95 0.96545604699118248 30 78 31 164
9427 -1.8610847662217036 3.9731789443545886 5.2205444827556384 157 143 114 0.55822014849691637 17 740 1 508 6 570
1983 -4.2887431645814669 -1.4189112521830272 6.8454700082726339 197 195 182 0.33527979973828026 60 1826 54 1590 56 1584 53 1228
7070 -4.6745177262222875 4.5159363588486485 0.2477652396278231 52 56 57 0.18448980736626897 26 77 30 79 31 87
9428 -1.4611886782859023 3.8525352395914165 5.1057780500394054 136 122 94 1.3141324178033829 2 661 7 51
1984 -5.746548255215373 -1.7711526622964513 5.5186295451410308 79 66 49 0.41773915462346256 58 1665 54 1597 56 1586
7071 -4.7814020781836799 1.5863811768621789 3.6476109532814602 252 252 252 1.9630724485762387 33 147 30 86 55 173 62 417
9429 -0.85657632435727316 2.7359884844890234 4.2642659769289306 10 6 0 1.1917611521920559 2 665 1 518
9430 -0.6540652426805329 3.2410861481864619 4.5804507822574818 177 168 143 2.0946318818520422 2 109 6 488 7 115
1986 -5.6684326363495403 -0.74706803446613279 5.9519493821842744 176 163 154 0.50677290905875383 61 2166 54 1606 56 1647 53 1109
7073 -3.1190865151965057 6.1897023441079195 -3.5289643346869433 78 75 58 0.37044495051317017 26 98 30 92 31 129
9432 -4.3866367834173756 0.19286767471513361 4.5802752728089491 137 128 176 1.5145748372603016 2 587 17 616 1 542 6 454
9433 -8.219062841817804 -2.1525175742889076 1.3382796569083806 215 212 203 2.2735168285985345 2 415 1 544 5 369 7 439
1989 -1.4237202903464545 -0.42949429874982825 6.5660741315402475 88 90 87 0.33337760827520418 60 2374 44 886
7076 -3.9301307635268961 4.0240545277254602 -0.79414894184496954 182 49 59 0.46920789281394737 26 70 30 109 31 91
9434 -4.3434074274537444 0.2450233884868063 4.6387872433236108 170 152 236 1.277952745205053 17 613 1 545 7 593
1990 -5.7834432306474355 -0.91488127162340682 5.5261411988358944 130 132 128 1.1464033468666128 61 2177 54 1613 58 1748
7077 -3.4949575645050772 3.7535502857771958 -0.66550444064771441 218 95 104 0.49055111278335684 26 121 33 107 30 112 31 336
9435 -4.0873244750826183 1.052890785236811 4.1562474246548318 74 72 49 0.8503478399790978 18 437 1 554
1991 -5.7252203195204485 -0.63660237881248827 5.9212384434297762 154 147 142 0.41049325850770624 58 2160 61 2191 54 1633 56 1628
7078 -2.8046509587985153 1.3357418452457439 4.1072973577177008 200 169 138 1.9409106609400368 26 193 33 73 30 115
9436 -9.1743334385697235 -2.0595834389497125 0.50101031425573739 192 189 180 1.6483521831229246 2 291 6 553 5 592
1992 -5.8211081341023618 -1.1493899562317671 5.4781321542559223 160 154 144 0.94210017016089476 58 1727 61 2249 54 1639 56 1569 46 1015 52 974
7079 -3.5502998799285241 1.425352762307152 3.5958564643030679 251 251 249 1.1486573482084397 26 116 33 173 30 139 31 110 62 178 55 106
9438 -5.5031019189166788 0.2625588500742313 2.4401536436709432 203 203 191 1.112462344884507 2 615 17 751 1 567 6 548 5 578 7 382
1994 -5.8277982074064774 -1.0608409932560814 5.5832524834162003 169 159 147 0.64564837067625769 61 1437 54 1657 56 1573
7081 -4.2970061550487024 1.3678593613402728 3.88422395721462 251 253 252 1.2608185736820121 30 145 55 174
9439 -8.0078407213272111 -1.9926195231138129 1.0940627195672432 208 205 195 0.30398324034426721 1 573 6 531
9440 -7.854207262210287 -1.8672185373982741 1.0078595778242305 233 233 225 1.3069269429604411 2 681 17 436 1 575 6 532 5 599 3 461 7 545 2 421 17 435
1996 -3.0221964736369391 0.63271963420256172 4.9761741192686051 204 181 148 0.18854844515449998 58 2025 54 1697
7083 -3.7444997023151196 2.5669071165798845 -1.3698645269623322 90 87 87 1.7340027407754759 26 169 30 167 31 144 29 159
9441 -4.1595468860674396 0.45388816884428168 4.7243290189021652 107 108 108 0.16509261793178079 2 550 1 581 6 566
1997 -4.3487007942192273 0.24846361786173229 4.4743281723496038 3 4 3 1.1649637036903226 58 1989 61 2005 54 1715 53 765 56 948
7084 -4.2142644746450912 4.0755445297927393 -0.65976039517295193 42 44 41 0.90229048443446203 26 174 30 168 29 164
9442 -1.5388437903036416 3.8689070368125491 5.0847142264022915 120 106 79 1.4483557811085894 17 745 1 586 5 224
1998 -5.115121121239306 0.77221969708468774 5.1065757914721539 147 138 125 0.77336337018219448 58 1968 54 1720 61 1279
7085 -1.9150407903290627 7.9381794212484653 -1.8746569477682733 181 178 169 0.46864611387792821 26 261 33 205 30 175 31 296 29 262
9443 -4.2651092662487953 0.31961043243279558 4.6985709888316682 115 110 177 0.19474358244546466 2 716 1 589 7 492
1999 -3.5032883496431708 0.47745832196583265 4.9418584196054338 122 122 124 1.2489671806722267 57 2053 54 1734 56 1908 38 929 35 703
7086 -1.4876250667717263 7.5527557805391403 -1.9153389692822289 193 185 163 1.2439686269061758 26 267 33 170 30 182 31 255
9444 -3.7230366125636287 2.7535281812366565 -0.97502524973244853 92 94 93 1.2850056372447669 18 673 1 597 5 574
7087 -3.2817707368359841 8.3111712000403291 -1.9494695268887769 172 169 162 0.54081196745964888 26 280 33 217 30 196
9445 -0.5455739624735364 1.9603459605257267 3.5207400041535202 96 99 100 0.87608987400486826 8 776 4 673 14 437 9 265 10 469 15 594 16 355 19 175 18 187 21 205 20 170 22 335 23 352 1 164 2 111 17 129 6 207 5 221 7 194
9446 -4.5724691869608804 -0.1272955568726718 4.8666541717998522 171 189 199 1.6439226833787572 17 374 1 467 2 351 1 261 6 461 5 411
7089 -4.1262242025997597 3.978244893330853 -0.47403026695887945 1 1 0 1.122732738992682 26 342 30 209 31 536 29 411 24 485
9447 -5.6919618726477514 -0.098044129331920291 -0.38485742705556647 208 206 194 0.3205724204442405 17 702 1 310
2003 -3.8637182084346602 0.94222649831249849 4.350069646410696 238 215 183 0.82234267291228369 60 1020 54 1789 48 448
7090 -5.7236210146732605 2.3040178980534392 3.3643657396522499 248 246 198 0.96688240814715876 62 584 30 231 55 1241
9449 -0.94684584876601952 0.77424015495297316 2.9860767297093802 129 129 123 0.58113731318213513 1 529 6 523
2005 -4.1343516345736564 1.4239721193476302 8.9325105235240727 95 92 85 0.89754787470312536 58 1998 61 2137 54 1807 56 1487 53 1402
7092 -3.2293663025346393 6.2434767311582 -3.874976188387163 181 60 7 0.43499765932540502 26 226 30 278 31 264
9451 -0.84639777704559938 1.4442944818786387 2.1422856328110882 78 77 72 1.4415693667137282 1 3 6 4 7 6
2007 -2.9222394926743509 1.3945515363985834 9.5557176710035954 109 103 88 0.72219969274644602 54 1834 35 790
7094 -4.2562474125190173 4.0734552648550073 -1.0290103114257358 183 180 181 1.8871281312611508 33 414 30 297 31 405
9452 -1.1713641791173557 0.80108893269109338 3.2621357059927281 128 125 118 1.5883051897590381 17 100 5 17 7 13
2008 -4.9255898943587964 -0.18643989524959803 4.8591923469605076 136 140 140 1.169142398253513 58 2127 61 2407 53 1501
7095 -4.5893212502570595 4.3909960453169612 0.0073639067241370393 98 101 100 0.51187081254894395 26 319 33 348 30 305 31 265 29 226
9453 -8.0989808777472021 -0.75512305255079004 3.0714260724552531 194 192 180 2.1983787826090193 2 9 5 22
7096 -2.39425193099901 2.8706167260069231 5.2454630754959117 118 102 88 0.83958004210493198 33 338 30 307
9454 -0.83497976869518575 1.9010933778497743 4.2244672239645542 78 75 70 0.089417031762734717 2 27 6 22
7097 -3.1663870600066186 6.3020077892266633 -3.5076371314139561 31 30 17 0.19696414975006038 26 371 30 317
9455 -2.8669615640507353 1.5285328536598881 5.8170115319845523 184 136 74 0.11865608855633383 17 57 6 28
2011 -2.8067784189061253 1.428374591833427 8.4439344767933431 53 53 46 0.43092160849954281 61 2004 54 1866 38 959
7098 -3.5356932147152738 2.354226940617131 -1.220647468589972 33 34 28 0.71495493112703545 26 339 30 345 31 389 29 296 27 408 24 263
9456 -3.0929365768946449 0.72662596516118438 5.0140423043080062 240 194 119 1.5976817876214575 2 31 17 56 6 29
7099 -5.2030430767066038 4.5257604931970192 0.029600025997226699 122 127 131 0.88745465875026963 26 233 30 350 31 283 55 1390 29 222
9458 -2.961630435197431 2.9390247650481438 5.9995184345449211 161 142 110 1.6393178167715621 17 28 6 32 5 38 7 31
2014 -3.6395182455938113 0.36203959149418374 5.0994169633876769 248 237 249 0.4556725024423201 59 2395 54 1882 46 1397 44 1504 38 799 36 692 35 650
7101 -3.6407446392731675 2.5652021838355963 -1.3166981302057474 209 208 206 1.6259934696934257 26 246 30 373 31 196 29 208
9459 -0.50662313045708496 1.998660359295193 4.2658425181876263 79 79 71 0.55569065644427817 1 37 6 33 5 34
9460 -2.1284152306886774 2.9632643783799186 4.719945041412549 26 23 16 1.3625328626928135 2 73 5 55
9462 -3.3221170044194763 3.613156702548697 6.2951769992991577 130 108 84 1.0861608403242173 1 29 6 42 5 51 7 44
2018 -1.2082212012420142 -0.94265615144663306 7.3660824222145962 52 50 45 0.8498572852182148 61 1681 54 1914
7105 -4.6143301555589744 1.3755729258799581 4.1074903018549991 250 252 251 1.5101027000687737 33 620 30 402 55 1238
9464 -1.3780095736153655 1.1447034204651716 3.5729068603148657 253 254 223 0.69196352851832843 1 24 6 45 7 59
2020 -3.7580460500418926 -0.99280798896661338 9.2611948898150551 131 106 66 0.19442347975378618 58 2311 61 1705 54 1921
7107 -2.1377303458861481 6.8745061642168119 -0.28206980044647301 106 105 101 0.20578307668796048 33 477 30 423 31 604
9465 -2.2563668997344792 3.5189390170161094 5.3338348226388144 114 89 70 0.2057982354636278 1 61 6 47 5 59 7 48
2021 -5.8941081536143454 -1.2609817495577991 5.4464700529474603 162 154 141 0.45598682937425594 61 1431 54 1923
7108 -1.3716537911996485 7.8582800708319462 -1.63349735084634 198 194 182 0.45400969530062318 26 561 33 486 30 428 31 833
9466 -2.7862261052538062 3.4514297911338665 5.2872643438073439 99 77 56 2.0393952185837545 2 34 6 54
2022 -9.7043315958607064 -7.5698653472822235 7.8305470802226926 214 216 213 0.19365304204120229 58 1189 61 1814 54 1927
7109 -3.4435918794345874 3.961462881516379 -0.86572227621875086 171 42 47 0.71266265039047194 26 531 30 447 31 503 55 407
9467 -3.5960234158798281 0.67695198218033359 4.4455858272969495 4 4 4 0.34082638266619603 1 55 6 56 5 63 7 58
7110 -2.6576230985658982 8.2641990920157848 -1.8719379549830526 74 75 69 0.39561473807907471 26 498 33 403 30 463 29 600
9468 -5.1781674444569807 3.1778260932158364 7.3727669524103243 28 30 17 1.3673515568558978 1 98 6 57 5 64 7 66
2024 -9.655770014141595 -7.3486276807039985 8.0119273550576757 214 216 213 0.19011595649469526 58 1182 61 1131 54 1936
7111 -3.2937565435281182 9.6931197234658093 -1.531015454296673 154 159 150 0.29480456360888257 26 429 33 470 30 467
9470 -4.4699655324837408 0.15095802999906108 4.3528767922268559 111 108 103 0.20014164639254911 1 54 6 68 5 83 7 76
2026 -5.3451483582649288 -2.4097709553037543 6.4486641260462907 127 113 104 0.51058604742536884 60 1875 54 1948 53 1012
7113 -3.5134362911322321 2.3416836710568125 -1.2489514159534851 226 161 162 0.48033966005005579 26 451 30 507 31 657 29 491
9471 -2.738430794247583 0.96697161478778382 4.4967703080684407 237 199 137 0.12812764135519278 1 56 6 70 5 86 7 78
2027 -3.646649097020787 0.58163016639018539 4.9280469575045007 56 43 30 0.36631838896273328 58 2301 61 2159 54 1950 34 648
7114 -0.95898964186312463 1.8875025395172054 4.2584288133263337 64 65 64 0.53499799329485098 33 1522 30 508
9472 -2.7653881046238489 1.2511298348140365 4.1375912339003991 232 195 131 0.3102766805435806 1 57 6 79 5 101 7 83
2028 -1.1907715467707929 -0.75300213090613732 8.1815527641590293 28 27 22 1.0189634752595209 58 2288 54 1969 61 1718
7115 -4.5742844094092119 4.6649070165964712 0.32658224612248565 58 62 58 0.61716176306379855 26 390 30 522 31 411
9473 -3.5983806839332559 1.0022245235352112 4.2780466014398328 128 122 100 0.15241387993556893 1 81 6 86 5 106 7 101
2029 -9.6423513596106787 -6.1516058741310307 9.3620193279460491 188 190 185 1.6259955360880276 58 1593 61 1936 54 1970
7116 -4.4534709080131787 1.6332497350449517 2.6366937470322944 88 92 93 0.45608756992552113 33 1614 30 535
9474 -0.43888944827456583 2.1522875613240906 4.1536770135048844 67 64 55 0.26636639963773961 1 48 6 109 5 127
2030 -0.22400322370296341 -1.0358669730342276 1.3373375699225025 116 104 80 0.71162777741179517 58 1933 54 1972
7117 -1.9968456469320215 2.0073782495646513 -1.4513785270912654 190 189 187 0.60008242092393382 33 776 30 543 31 1299
9475 -2.2833371589225657 3.8659947345688672 5.4818511502094465 44 41 26 1.5866562826190913 18 317 6 114 5 135
2031 -1.0907103223105148 -0.71442287353309308 8.0273373626651061 54 54 52 0.79355499740413027 58 1761 61 1701 54 1973
7118 -1.4079596481945942 1.9032016983433411 0.77300857788799171 234 231 217 2.330815406212742 33 1551 30 566
9476 -1.2502633654513617 4.519555014527028 4.1674619941267093 107 98 83 0.85762545858523143 1 65 6 116 7 189 5 285
2032 -9.1679726910330874 -5.2928374334596846 9.6658166402081509 177 182 178 1.5925839305954028 58 1541 61 1887 54 1984
7119 -3.4051986001084673 4.1241835782082568 -1.0167620436746534 52 8 3 0.22920435534437664 26 533 33 685 30 592 31 694 29 499
9478 -2.8553156087760865 1.1223599933513222 4.5806689092453201 231 187 122 0.57607799030411455 1 249 2 122 6 137 5 365 7 219
2034 0.13619550754536985 -1.9544444180498968 11.971204159486909 233 240 244 0.94154085369644469 59 551 51 343 50 501 57 772 54 279 58 426 61 384 60 539 49 466 47 390
7121 -2.9668637071101118 6.4340500250458996 -3.7267527713421451 91 82 42 0.14869971268037319 26 539 30 594 31 1103
9479 -4.3905428196546845 0.17585913683452797 4.5894483356608005 151 136 193 0.23273440523623817 1 116 6 141 5 156 7 141
2035 -2.3805241910042358 -0.54216474084228428 6.2894959613188419 6 6 6 1.4343136506243332 58 950 60 2285 58 1728 46 803
7122 -3.0345566757856868 6.2631898326089237 -3.5870636667712397 119 106 83 0.29607212489550067 26 631 30 598 31 1071
9480 -0.22086793751701131 3.0146834163161715 4.1333794323724691 56 57 51 2.2468448411389406 2 478 6 157 7 505
2036 -0.0089549364182780252 -3.5253564597497631 11.771233719178635 151 144 131 1.4994966032568011 58 1642 54 986 61 201 54 79
7123 -2.3516288403980692 8.9150913905945188 -0.81889357595408951 218 211 185 0.049204154351363473 33 788 30 624
9481 -0.89631552567160588 0.85846196145941278 3.0237732025019182 91 92 87 0.57600749331493328 1 168 6 160 7 152
9482 -4.5530001714839834 -0.14317543377184927 5.1884361987127985 233 248 253 0.23515799488997829 1 196 6 179 5 214 7 188
9483 -3.1201690756091041 1.1299275094077728 3.8573456750209565 250 249 230 0.76540525722045349 1 359 6 197 7 222 5 142
2039 0.14572349216294389 -1.2953308333823874 10.215919752397939 44 45 39 2.2829897277776587 61 1101 54 405 58 1875 54 250
7126 -4.1555353572345197 3.9862669594368132 -0.80063233517962862 25 1 1 0.13382476788289885 26 732 33 1320 30 707
9484 -4.541620758292237 0.034469920452938403 4.7279366615082958 231 252 255 0.21295803046750011 1 241 6 219 5 240 7 206
2040 -3.8399398692578539 -0.3089990268641567 6.0495054595119404 192 194 199 1.6767554683139527 59 913 51 1076 50 825 57 2318 54 1430 59 1873 61 2192 51 1707 50 1325 56 1637 53 1099 46 1085 52 1146
7127 -3.9986022169613795 3.9960013498891196 -0.6655243462304129 249 134 140 0.52423989140293659 26 741 33 1280 30 711 31 686 29 918
9485 -0.55543237180990535 3.108749643575901 4.402620928484577 92 89 80 1.6042623241923115 2 654 6 234 5 608
2041 -4.3318264264615021 -4.5377052707820278 9.8135790797250966 219 218 213 2.4401338255923699 58 132 61 121 54 178 56 120
7128 -3.3560868607387109 2.3655297272497742 -1.1073238565209789 119 78 76 0.032131151938078327 33 1616 30 715
9486 -0.54455865526927794 3.1842926307717181 4.4629034368767462 111 109 98 1.0492989842655303 1 525 6 236 5 294 7 241
2042 -6.095429025034373 -2.1114082151434337 9.5728662326816298 36 29 36 0.95220823848519853 61 235 54 188 58 219
7129 -3.2897570294712604 6.1551761977205555 -3.8545377829095413 131 71 8 0.045845550416805519 26 646 30 734
9488 -3.7514976721491955 0.71464450709977778 4.4336376796925094 5 4 0 0.23101460632008722 1 399 6 261 5 242 7 259
2044 -5.6779774457620302 -0.77969943827865063 5.876481054627706 85 75 63 1.7023150686376554 58 1147 61 1443 54 838 53 1105
7131 -0.93907578290713489 8.8987900127651187 -1.2614686181950372 199 194 175 0.28600608078625994 26 1134 30 795 31 556
9489 -7.5512594341528763 -0.78085058607466706 2.0558102731353678 213 211 199 0.42646280599141978 2 288 6 266 5 260
2045 -1.6538988130191974 1.182124083007565 7.800938405650796 74 72 67 1.2167635427314936 58 995 54 920 61 1983 44 1488
7132 -1.0954884543998935 8.7276556007011159 -1.0088118367665018 189 186 177 0.14196148216122029 33 1470 30 861 29 1132
9490 -2.596596466285694 1.2226755338266693 4.3693676317796815 225 191 143 0.17490343018177143 1 217 6 267 5 278 7 266
2046 -1.5226895843519643 -1.2040740016659639 9.2568392530740109 79 79 77 2.6577977311484524 61 1069 54 1025
7133 -1.1497351276052516 8.0790196188110208 -1.5461782372177579 191 192 179 0.25978641473284264 26 1121 33 936 30 872
9491 -3.8132012822280634 1.0671127452018963 4.1301129583854612 243 240 221 0.080912719831896018 1 220 6 272 5 271 7 274
7134 -1.1415276519954081 8.1068586819832227 -1.3431613145174146 132 131 121 0.68775867868745277 26 1122 31 828
9492 -1.1112107235302338 1.5963117728363838 3.994553060507783 77 68 51 1.6183015873621434 1 84 6 273 5 173
7135 -0.0061289499766739924 11.429801881527018 -4.7666437833051472 167 162 150 0.34669597470294339 26 1135 30 888 29 1124
9493 -0.9880525900782664 1.4184221262292007 3.796548505615744 221 198 156 0.70967259647026293 1 367 6 274 5 268 7 279
9494 -0.6712951506059226 2.303130125333281 4.3002176038911077 28 7 5 0.61647484610248138 1 316 6 280 7 234
7137 -4.6199973592799601 1.6517000505760204 3.6186583958100575 184 172 156 2.0164715288716639 26 488 33 1053 31 332
9495 -4.7090435584609152 -0.39489911939265676 5.3912796866604538 244 244 244 0.161427726960999 17 262 6 292 2 263 5 329 7 297
9496 -2.69118651933546 2.1730327276713095 6.214843525927022 233 202 155 0.3296844475800258 1 262 6 295 7 320 5 368
9497 -4.5445073533970533 -0.12914428082029897 5.1012022158017647 232 253 255 0.14646640891495491 2 282 6 318 17 227
